ply
format ascii 1.0
comment VCGLIB generated
element vertex 595
property float x
property float y
property float z
property float nx
property float ny
property float nz
property uchar red
property uchar green
property uchar blue
property uchar alpha
element face 0
property list uchar int vertex_indices
end_header
-0.1737414 0.05097042 0.1124892 -0.4203146 -0.6607666 -0.6218707 153 153 142 255 
-0.1731915 0.0507718 0.1123565 -0.4174888 -0.6753382 -0.6079649 154 152 141 255 
-0.1723315 0.05073918 0.1116143 -0.3996613 -0.6148384 -0.6798856 155 150 144 255 
-0.1679705 0.05112923 0.1113475 -0.04623097 -0.01530138 -0.9988136 123 113 105 255 
-0.1675362 0.05126651 0.1114023 -0.02819857 0.009173648 -0.9995602 122 112 103 255 
-0.1670702 0.0512953 0.1113531 -0.03449905 0.008088345 -0.9993719 121 112 104 255 
-0.1669476 0.05185059 0.1113306 -0.03085025 0.0066459 -0.9995018 122 112 102 255 
-0.1661654 0.05183179 0.1113231 -0.07991195 -0.06460813 -0.9947059 119 108 100 255 
-0.1648423 0.05097304 0.1112878 -0.09923019 -0.08377936 -0.9915313 116 104 93 255 
-0.1647526 0.05180742 0.1110827 -0.1717754 -0.2399479 -0.9554675 108 100 94 255 
-0.163946 0.05161643 0.1101379 -0.2243087 -0.445969 -0.8664855 108 98 89 255 
-0.1636628 0.05099441 0.111068 -0.1728547 -0.1516303 -0.9732057 116 96 81 255 
-0.1636017 0.05138847 0.1104503 -0.1435191 -0.2493892 -0.9577093 110 98 85 255 
-0.159002 0.04970353 0.09961355 -0.3756126 -0.8754144 -0.3042445 96 78 62 255 
-0.1590735 0.04980451 0.1009703 -0.3399022 -0.9236263 -0.177147 82 70 55 255 
-0.1547018 0.05001876 0.1014573 0.2623818 -0.1364203 -0.9552723 160 78 25 255 
-0.1538657 0.05248361 0.107738 0.4857957 -0.007160375 -0.874043 92 52 17 255 
-0.1543529 0.05300837 0.1079852 0.3580832 0.2323885 -0.9043074 82 52 21 255 
-0.153737 0.05311142 0.1079991 0.2278503 0.1461576 -0.9626641 77 55 27 255 
-0.1529129 0.05251314 0.1077146 0.3656846 -0.09423268 -0.9259562 87 57 34 255 
-0.15289 0.05291995 0.1078238 0.2904829 0.1313245 -0.9478257 83 60 37 255 
-0.1525036 0.05277596 0.1078689 0.3466368 0.1861852 -0.9193357 81 59 43 255 
-0.1528954 0.05328924 0.107923 0.2249366 0.2809509 -0.9329899 77 62 40 255 
-0.1517447 0.05346872 0.1085389 0.5516316 0.4015283 -0.7310796 75 72 65 255 
-0.1506281 0.04982633 0.1121103 0.7579226 -0.02512783 -0.6518603 134 95 91 255 
-0.1791109 0.05156485 0.1154214 -0.08284725 -0.06761545 -0.9942657 79 83 74 255 
-0.1765091 0.05125695 0.1151044 -0.2410144 -0.3528955 -0.904089 102 100 96 255 
-0.17605 0.05123312 0.1147681 -0.2706625 -0.428367 -0.8621157 122 117 113 255 
-0.1761029 0.05163437 0.1141291 -0.3511325 -0.5870885 -0.729406 139 138 131 255 
-0.175577 0.05145179 0.1143951 -0.3592635 -0.5813627 -0.7300322 145 142 136 255 
-0.1750045 0.05122881 0.113511 -0.3919771 -0.6485463 -0.6524888 140 141 136 255 
-0.1742621 0.05123529 0.1125265 -0.4116792 -0.6562727 -0.6323181 148 150 144 255 
-0.1734489 0.05127729 0.1118281 -0.4077548 -0.6020178 -0.6865205 155 149 141 255 
-0.1722355 0.05150257 0.1114022 -0.2818516 -0.3714678 -0.8846306 123 117 113 255 
-0.1716796 0.05097429 0.1112245 -0.3314493 -0.4730137 -0.8163329 129 126 121 255 
-0.171879 0.05159834 0.1114918 -0.2403595 -0.3073725 -0.9207331 120 112 106 255 
-0.1711689 0.05106631 0.1112423 -0.2894939 -0.3763256 -0.8800979 120 112 107 255 
-0.1713839 0.05172174 0.111462 -0.1837967 -0.2129101 -0.9596291 117 109 102 255 
-0.1708582 0.05124269 0.1114843 -0.2206131 -0.2850393 -0.9327821 117 109 101 255 
-0.1709011 0.0517681 0.1114977 -0.1503211 -0.1428575 -0.9782613 115 108 101 255 
-0.1703942 0.05120553 0.1114014 -0.1869427 -0.2338593 -0.9541291 115 106 99 255 
-0.1699523 0.0513686 0.111373 -0.09544608 -0.1119802 -0.989116 113 107 99 255 
-0.1693502 0.05056104 0.1111985 -0.2063581 -0.2884815 -0.9349838 114 107 100 255 
-0.1691624 0.05147925 0.1110238 -0.08729075 -0.0595072 -0.994404 117 108 99 255 
-0.1689198 0.05150801 0.1112661 -0.04581483 -0.00841306 -0.9989145 119 110 101 255 
-0.1684365 0.05171336 0.1112565 -0.04880362 0.009369899 -0.9987645 119 113 105 255 
-0.1669026 0.04179737 0.113449 0.03312197 -0.02464179 -0.9991474 117 40 15 255 
-0.1679983 0.05169253 0.1113682 -0.03227573 0.02895405 -0.9990594 121 113 104 255 
-0.1679872 0.05221602 0.1112199 -0.0475232 0.03441475 -0.9982771 120 112 105 255 
-0.1674142 0.05180763 0.1112708 -0.03455137 0.02286459 -0.9991413 123 113 104 255 
-0.167567 0.05238508 0.1114278 -0.04462529 0.03052044 -0.9985374 120 112 104 255 
-0.1671022 0.05240359 0.1113922 -0.06750916 -0.006207772 -0.9976993 123 113 104 255 
-0.1664578 0.05211175 0.1111276 -0.08904861 -0.03223985 -0.9955053 122 112 103 255 
-0.1660534 0.05231729 0.1111321 -0.1070834 -0.1050552 -0.9886842 116 109 103 255 
-0.1654588 0.05210898 0.1106319 -0.1605038 -0.1123444 -0.9806209 115 108 102 255 
-0.1636918 0.05171661 0.1087171 -0.35751 -0.7524128 -0.5532283 115 97 85 255 
-0.1607517 0.05056536 0.1037786 -0.2524229 -0.9108528 -0.326542 140 91 62 255 
-0.1577221 0.04909898 0.09662858 -0.2529266 -0.581089 -0.7735397 150 70 34 255 
-0.1573613 0.04913087 0.09633799 -0.1992886 -0.3162728 -0.9274997 181 91 38 255 
-0.1562344 0.04915778 0.09808186 0.3660609 -0.6547002 -0.6613371 195 101 41 255 
-0.1564282 0.0488616 0.09603374 -0.007318747 -0.1367428 -0.9905795 171 88 37 255 
-0.1555967 0.04865992 0.09670103 0.1392339 -0.2090247 -0.9679475 193 111 57 255 
-0.1554344 0.05085917 0.101955 0.4226375 0.5987238 -0.6803728 106 54 24 255 
-0.1546301 0.04969238 0.1004464 0.251172 -0.192768 -0.9485532 194 97 35 255 
-0.1550115 0.05113289 0.1033847 0.5540528 0.5030347 -0.6633111 103 52 18 255 
-0.154886 0.05169137 0.1050526 0.5486127 0.4773693 -0.6863983 93 52 13 255 
-0.1553215 0.05292286 0.1070824 0.4773141 0.4660419 -0.7449672 92 74 48 255 
-0.154806 0.05310297 0.1077028 0.4394227 0.2904246 -0.850036 87 58 32 255 
-0.1544075 0.05366349 0.1079444 0.3174955 0.2169248 -0.9231145 70 52 27 255 
-0.1539694 0.05375918 0.1079056 0.2269207 0.2877739 -0.9304263 70 52 30 255 
-0.1536272 0.05360093 0.1079791 0.1775037 0.2797624 -0.9435176 73 56 34 255 
-0.1529119 0.05386222 0.1080955 0.2822457 0.3586957 -0.889761 79 64 43 255 
-0.1524521 0.05383075 0.108198 0.3441019 0.4349247 -0.8321264 76 65 50 255 
-0.1784972 0.05122188 0.1153946 -0.09551851 -0.08752377 -0.9915724 79 85 76 255 
-0.1677914 0.04140007 0.1133131 0.2028767 0.1533911 -0.9671154 117 37 6 255 
-0.1622356 0.05108143 0.1052992 -0.3338133 -0.9059072 -0.2605782 146 97 58 255 
-0.1588306 0.04973049 0.1010744 -0.3023947 -0.8552159 -0.4209075 121 85 58 255 
-0.1552593 0.04940885 0.0981802 0.3584648 -0.1097611 -0.9270682 168 82 24 255 
-0.1541034 0.05202378 0.1075788 0.3349802 0.04495963 -0.9411519 92 48 15 255 
-0.1535164 0.05271881 0.1079294 0.2833844 0.08548415 -0.9551888 75 51 27 255 
-0.1533501 0.05385154 0.1080382 0.2636739 0.3551688 -0.8968451 84 69 47 255 
-0.1450539 0.05248435 0.114816 0.3076587 -0.04092018 -0.9506165 70 79 79 255 
-0.1703397 0.03264715 0.1072126 -0.7198189 0.1326346 -0.6813727 59 38 25 255 
-0.1642815 0.0514521 0.1110485 -0.1651912 -0.1867637 -0.9684168 107 97 91 255 
-0.1532521 0.05191952 0.1077063 0.4459913 -0.3144891 -0.8379667 120 64 16 255 
-0.1784698 0.0517217 0.1152684 -0.1380213 -0.1573441 -0.9778512 81 85 76 255 
-0.1787065 0.05235014 0.1149651 -0.2279777 -0.359628 -0.9048169 104 102 96 255 
-0.1778811 0.05152016 0.115298 -0.1634399 -0.2260831 -0.9602988 83 88 82 255 
-0.1779103 0.0519799 0.1151856 -0.2377226 -0.3577113 -0.9030673 96 95 90 255 
-0.178149 0.05236167 0.1143933 -0.2995789 -0.520227 -0.7997602 131 127 122 255 
-0.1773727 0.05184114 0.1150251 -0.2693273 -0.4030916 -0.8746312 112 110 104 255 
-0.1774424 0.05221208 0.1143341 -0.3274183 -0.5265494 -0.7845654 138 135 127 255 
-0.1767957 0.05186399 0.1146567 -0.3195734 -0.5224841 -0.7904955 134 129 123 255 
-0.1766311 0.0521602 0.1133656 -0.3654976 -0.6638002 -0.6525187 141 141 131 255 
-0.1760194 0.05206816 0.112852 -0.3922525 -0.6896344 -0.6087217 149 149 139 255 
-0.1754793 0.0516078 0.113317 -0.3887941 -0.6808367 -0.6207259 146 145 138 255 
-0.1753445 0.0519941 0.1123297 -0.3978052 -0.6583208 -0.6390342 158 152 141 255 
-0.1748454 0.05157482 0.1126392 -0.4065128 -0.6871067 -0.602189 154 152 142 255 
-0.1747348 0.05197642 0.1119922 -0.3633303 -0.5941937 -0.7175826 148 147 143 255 
-0.1739616 0.05153404 0.1119021 -0.3692334 -0.5962026 -0.7128879 148 147 142 255 
-0.1741528 0.05202773 0.1117231 -0.336549 -0.5077245 -0.793064 130 125 125 255 
-0.1736762 0.05189989 0.1116151 -0.3199963 -0.472585 -0.8211368 127 124 121 255 
-0.1717746 0.05222466 0.1115238 -0.1496512 -0.1393518 -0.9788696 116 109 104 255 
-0.1712524 0.05232091 0.1115462 -0.1023785 -0.0596301 -0.9929566 116 108 102 255 
-0.1707386 0.05222856 0.1114268 -0.07218069 -0.0307646 -0.996917 115 108 102 255 
-0.1703131 0.0519001 0.111488 -0.0807905 -0.05278195 -0.9953325 112 107 99 255 
-0.1702518 0.05246567 0.1114094 -0.05419245 0.0234441 -0.9982552 116 108 103 255 
-0.1695329 0.05197368 0.1111261 -0.0384254 0.002749696 -0.9992576 116 109 102 255 
-0.1696634 0.05258289 0.1112999 -0.05643948 0.03303633 -0.9978592 116 109 103 255 
-0.1688731 0.05200778 0.1109434 -0.02073625 0.01226224 -0.9997097 117 111 106 255 
-0.1689304 0.05259022 0.1109947 -0.01849962 0.03923218 -0.9990588 117 110 105 255 
-0.1685223 0.05226192 0.1111994 -0.04537496 0.03398303 -0.9983917 119 111 104 255 
-0.1685119 0.05280836 0.1111146 -0.05191125 0.04590245 -0.9975961 118 110 103 255 
-0.1679989 0.05277757 0.111109 -0.03092583 0.03564515 -0.9988858 118 110 104 255 
-0.1676403 0.05291976 0.1112951 -0.05822465 0.0227149 -0.998045 118 110 103 255 
-0.1671944 0.05306804 0.1111888 -0.1086399 -0.01897044 -0.9939001 116 109 102 255 
-0.1667362 0.05273286 0.1111237 -0.1325057 -0.03613376 -0.9905233 121 112 106 255 
-0.1647486 0.05208454 0.1105368 -0.2433526 -0.4409046 -0.8639344 115 102 95 255 
-0.1641196 0.05188441 0.1078573 -0.4668391 -0.5870559 -0.6613823 112 103 95 255 
-0.1625978 0.05135406 0.104879 -0.3428436 -0.9026012 -0.2603255 124 96 66 255 
-0.1583096 0.05001672 0.09686073 -0.2222587 -0.04001699 -0.9741661 142 62 19 255 
-0.1561699 0.05136654 0.1032814 0.2039797 0.7937763 -0.5729847 94 53 24 255 
-0.156184 0.05310575 0.1064891 0.08186893 0.6622671 -0.7447816 82 64 51 255 
-0.1539913 0.04917893 0.1004141 0.6332766 -0.6243615 -0.4573111 176 98 52 255 
-0.156025 0.05361823 0.1070586 0.1050954 0.5924662 -0.7987106 79 80 71 255 
-0.1555334 0.05358901 0.1071947 0.1536795 0.5066372 -0.8483521 69 61 50 255 
-0.1515348 0.05392497 0.1092381 0.5884166 0.375466 -0.7160943 90 88 82 255 
-0.151724 0.05455808 0.1097725 0.5249749 0.5030879 -0.6865159 86 88 83 255 
-0.1511582 0.0544056 0.1101879 0.5724953 0.423651 -0.701975 85 90 88 255 
-0.1499466 0.05378948 0.1106996 0.6616598 0.1155912 -0.7408407 115 113 113 255 
-0.1777714 0.05268546 0.1136003 -0.3641866 -0.6386915 -0.6778209 143 143 134 255 
-0.1769931 0.05245309 0.1131892 -0.3691961 -0.6615713 -0.6527002 145 144 135 255 
-0.1731756 0.05169148 0.1115257 -0.31692 -0.4435358 -0.8383541 131 127 122 255 
-0.1733803 0.05231203 0.1116621 -0.2227719 -0.2898654 -0.9307796 122 114 110 255 
-0.1727972 0.05207513 0.1115836 -0.2218065 -0.2868733 -0.9319364 122 115 110 255 
-0.1728863 0.052642 0.1116386 -0.1609171 -0.1650626 -0.9730673 119 112 107 255 
-0.1723041 0.05215697 0.1115975 -0.1940385 -0.2102349 -0.9582016 118 110 107 255 
-0.172379 0.05277144 0.1116308 -0.1017344 -0.06589524 -0.9926268 117 110 104 255 
-0.1719045 0.0528296 0.1115768 -0.08490866 -0.02952479 -0.9959512 117 110 104 255 
-0.1714056 0.05295201 0.1116075 -0.06227886 0.01126646 -0.9979952 116 109 104 255 
-0.170821 0.05283138 0.1113211 -0.06658036 0.01203473 -0.9977085 116 109 104 255 
-0.1702191 0.05302687 0.111165 -0.04243422 0.03426381 -0.9985116 115 108 104 255 
-0.1696271 0.05310057 0.1110897 -0.02272228 0.05060765 -0.9984601 115 109 103 255 
-0.1693064 0.05323892 0.1114788 -0.03157537 0.05397568 -0.9980428 117 111 105 255 
-0.1687561 0.05336739 0.1112183 -0.05279119 0.05339889 -0.9971768 117 111 102 255 
-0.1681257 0.05329436 0.1110058 -0.05322346 0.03531855 -0.9979578 119 109 102 255 
-0.1677613 0.05337801 0.111092 -0.06821404 0.01441193 -0.9975666 117 107 101 255 
-0.1665037 0.05306038 0.110688 -0.1238567 -0.05789941 -0.9906095 112 108 102 255 
-0.1661382 0.05283483 0.1107381 -0.2301289 -0.1588131 -0.9601141 118 111 103 255 
-0.1639073 0.05022144 0.1111565 -0.09540695 -0.08168749 -0.9920809 107 95 87 255 
-0.1619202 0.05065026 0.1022343 -0.2963954 -0.8681016 -0.3981828 155 89 52 255 
-0.1616636 0.05043263 0.1001014 -0.04956626 -0.739208 -0.6716508 158 90 42 255 
-0.1616312 0.05151224 0.1101207 -0.05357482 -0.5595182 -0.8270847 132 100 71 255 
-0.1612968 0.05063646 0.1029062 -0.2127271 -0.9292899 -0.3019398 148 91 54 255 
-0.1615906 0.05029714 0.1007938 -0.08756759 -0.9115337 -0.4017937 136 86 57 255 
-0.1617024 0.05040302 0.09944037 0.01066132 -0.4910555 -0.8710631 130 91 61 255 
-0.1608804 0.05030409 0.09991295 -0.1286767 -0.8517706 -0.5078672 113 75 58 255 
-0.159663 0.0518965 0.1033038 -0.07738141 0.8542086 -0.5141398 130 63 24 255 
-0.1592617 0.05312623 0.107135 -0.2674712 0.7439255 -0.6124002 109 64 26 255 
-0.1580139 0.04922096 0.0983637 -0.3087096 -0.8747175 -0.3735876 100 64 45 255 
-0.158196 0.04953956 0.09637146 -0.2946903 -0.1260265 -0.947246 152 66 21 255 
-0.1577139 0.05146586 0.1029836 0.1065438 0.8631185 -0.4936344 107 73 46 255 
-0.1566743 0.0520272 0.1044479 0.07159764 0.7620848 -0.6435063 101 59 33 255 
-0.1555697 0.04935416 0.0972454 0.1937319 -0.0664035 -0.9788046 156 68 22 255 
-0.1566302 0.05318736 0.1065307 -0.09638559 0.721289 -0.685895 84 59 46 255 
-0.1557913 0.05332665 0.1068856 0.1870401 0.5639004 -0.8043832 75 67 52 255 
-0.1555356 0.05390883 0.1072702 0.1679796 0.529984 -0.8312039 68 63 57 255 
-0.1550162 0.0539008 0.107553 0.2260446 0.4421526 -0.8679889 65 55 41 255 
-0.1546734 0.05386113 0.1077746 0.2964272 0.330517 -0.8960409 58 51 32 255 
-0.1542772 0.05414063 0.1078457 0.250753 0.3849167 -0.8882354 78 71 53 255 
-0.1536237 0.05417311 0.1079829 0.2242167 0.4189987 -0.8798675 93 78 53 255 
-0.1531422 0.05437166 0.1082305 0.2865965 0.4799135 -0.8291836 82 71 56 255 
-0.1534822 0.0547572 0.1083572 0.2354142 0.5569119 -0.7965106 88 81 65 255 
-0.1526211 0.05442342 0.1086777 0.3788118 0.5136526 -0.7698458 77 70 56 255 
-0.1519843 0.05358295 0.1084832 0.486946 0.4164521 -0.7677573 70 69 59 255 
-0.152056 0.05418401 0.1088578 0.464728 0.4767275 -0.7461626 78 74 66 255 
-0.1744912 0.05241362 0.1117246 -0.2871037 -0.4145719 -0.8635403 125 121 116 255 
-0.1741737 0.05298285 0.1117302 -0.1791102 -0.2118441 -0.9607505 121 115 106 255 
-0.1735737 0.05298983 0.111683 -0.1431764 -0.1569051 -0.9771803 120 112 106 255 
-0.1654735 0.05255684 0.1105953 -0.2377217 -0.2809556 -0.9298131 118 108 102 255 
-0.1635325 0.05170507 0.1066358 -0.4534941 -0.7013464 -0.5499604 119 102 81 255 
-0.1636095 0.05160664 0.1039941 -0.5149845 -0.7979134 -0.3132492 114 105 82 255 
-0.1634278 0.05162044 0.1058438 -0.43518 -0.8453602 -0.3098139 119 105 74 255 
-0.1622662 0.05094504 0.1032211 -0.3985823 -0.8742516 -0.2771574 138 96 63 255 
-0.1616344 0.05073861 0.1055637 -0.2457948 -0.8867027 -0.3915907 149 100 50 255 
-0.1586295 0.02869989 0.1087257 0.7676756 -0.3181297 -0.5562982 92 68 60 255 
-0.160903 0.04930107 0.09675057 0.04498019 -0.3577715 -0.9327252 122 86 69 255 
-0.1600056 0.05252918 0.1057895 -0.1433409 0.8010545 -0.5811757 118 64 42 255 
-0.1583457 0.04924773 0.09670645 -0.3308233 -0.549583 -0.7671469 136 59 30 255 
-0.1589772 0.0512636 0.1013311 -0.0175654 0.8711069 -0.4907792 126 66 38 255 
-0.1587298 0.05178976 0.1037546 -0.08260853 0.7936138 -0.6027876 110 82 66 255 
-0.1582723 0.05245198 0.1051122 -0.1449082 0.7870566 -0.5996195 113 90 73 255 
-0.1572732 0.05301333 0.1062006 -0.2188002 0.7261879 -0.6517497 93 74 55 255 
-0.1540868 0.0424564 0.1079723 0.8236787 -0.3242511 -0.4652038 177 71 79 255 
-0.1536874 0.04308238 0.1077929 0.8668661 -0.2000814 -0.4566297 185 88 95 255 
-0.1540495 0.05487542 0.1083191 0.1987901 0.607192 -0.7692855 85 80 67 255 
-0.1540199 0.05541549 0.1089029 0.1706181 0.673292 -0.7194214 79 70 58 255 
-0.175927 0.05240883 0.1122389 -0.373196 -0.6378552 -0.6736954 158 151 142 255 
-0.1751966 0.05240042 0.111916 -0.3266251 -0.5259955 -0.7852672 137 134 130 255 
-0.165951 0.05323803 0.1098661 -0.1881911 -0.141261 -0.9719205 111 106 100 255 
-0.1625245 0.05114846 0.1062217 -0.2814631 -0.8841987 -0.3727884 121 95 64 255 
-0.1601049 0.04991548 0.09817385 -0.249487 -0.7903131 -0.5596082 101 71 48 255 
-0.1600884 0.05019159 0.09826893 -0.1386162 -0.196397 -0.9706769 122 73 51 255 
-0.1606014 0.05396819 0.1091438 -0.05468005 0.6558182 -0.7529359 140 73 35 255 
-0.1565691 0.04893285 0.09733456 0.1164344 -0.6514218 -0.7497284 178 85 41 255 
-0.1569873 0.0523656 0.1050568 -0.01010519 0.766647 -0.6419894 97 72 54 255 
-0.157064 0.05399556 0.1080345 -0.3577166 0.6693454 -0.6511647 86 75 57 255 
-0.1761061 0.05285211 0.111982 -0.3154168 -0.5299325 -0.7871999 142 138 135 255 
-0.1755571 0.05279678 0.1118635 -0.2994259 -0.4715976 -0.8294214 132 128 125 255 
-0.1750588 0.05293273 0.1117972 -0.2262075 -0.3331591 -0.9153333 122 115 109 255 
-0.1730579 0.05323587 0.1116686 -0.1002204 -0.06444277 -0.9928761 118 111 104 255 
-0.1673717 0.0538227 0.1106434 -0.1072555 0.00849218 -0.9941952 111 108 101 255 
-0.1672207 0.05352063 0.1108962 -0.1307193 -0.0278289 -0.9910288 115 108 102 255 
-0.1665616 0.05371803 0.1101896 -0.1988207 -0.1041133 -0.9744899 111 108 102 255 
-0.1643169 0.05224846 0.1074035 -0.4242754 -0.7125605 -0.5587915 119 106 95 255 
-0.1612454 0.05262316 0.1055066 0.03552833 0.7990157 -0.6002595 129 66 45 255 
-0.1600122 0.05421824 0.1090403 -0.1323853 0.6103306 -0.7810062 123 77 48 255 
-0.1590094 0.05028358 0.09787423 -0.3136268 0.2565173 -0.9142413 140 57 20 255 
-0.1585279 0.05321199 0.1070947 -0.2825849 0.7885879 -0.5461457 104 65 30 255 
-0.1583234 0.05443769 0.1097869 -0.2721834 0.497814 -0.8234666 79 64 43 255 
-0.1562687 0.05398067 0.1072688 -0.1718907 0.6613277 -0.7301365 90 82 71 255 
-0.1555945 0.05264737 0.1063162 0.2955204 0.6197397 -0.7270421 94 78 54 255 
-0.1558407 0.05411821 0.1072817 0.01570962 0.6074359 -0.7942132 85 83 74 255 
-0.1555014 0.05441856 0.1074989 0.05347742 0.61714 -0.7850341 100 99 91 255 
-0.1554873 0.05506136 0.1082188 -0.0522548 0.697313 -0.7148595 108 104 95 255 
-0.1550809 0.05445807 0.1076665 0.1513402 0.5657613 -0.8105616 108 104 94 255 
-0.1549743 0.0549663 0.1081007 0.070315 0.6414617 -0.7639258 103 100 91 255 
-0.1544142 0.05459739 0.1079527 0.1692863 0.5340455 -0.8283341 99 99 90 255 
-0.154721 0.05579705 0.1094215 0.06478654 0.7179281 -0.6930959 79 69 59 255 
-0.1538553 0.05447594 0.1080012 0.2176141 0.5017961 -0.8371646 91 81 62 255 
-0.1537363 0.05541019 0.1092004 0.2116432 0.6773572 -0.7045526 76 69 57 255 
-0.178023 0.05305202 0.1131076 -0.3899594 -0.6536761 -0.6485669 153 150 139 255 
-0.1772395 0.05333006 0.1121288 -0.3275551 -0.551959 -0.7668434 147 144 140 255 
-0.1746805 0.05326697 0.1117723 -0.1657195 -0.2066608 -0.964276 119 113 105 255 
-0.1739334 0.05252209 0.1117041 -0.2346497 -0.3012769 -0.924214 124 115 108 255 
-0.1741244 0.05348068 0.1117349 -0.1125776 -0.1018706 -0.988407 119 113 105 255 
-0.1735785 0.0535951 0.1116944 -0.09558902 -0.03858057 -0.994673 117 111 103 255 
-0.1725461 0.0533592 0.1116479 -0.0766682 -0.02170656 -0.9968204 117 110 104 255 
-0.172027 0.0534499 0.1116312 -0.05756579 0.01947732 -0.9981516 117 111 107 255 
-0.1686542 0.05377813 0.1106803 -0.03687248 0.03839464 -0.9985821 116 107 100 255 
-0.1682967 0.05367102 0.1107795 -0.05196333 0.03661932 -0.9979774 115 108 102 255 
-0.1683486 0.05426269 0.1109724 -0.05342679 0.03792981 -0.9978511 117 107 98 255 
-0.1665634 0.05146036 0.1113547 -0.03840995 0.006431566 -0.9992414 118 110 103 255 
-0.1636317 0.04403028 0.1132757 -0.2028333 -0.2489148 -0.9470481 102 28 3 255 
-0.163701 0.05204632 0.1028416 -0.6779823 -0.4232392 -0.6010063 111 93 76 255 
-0.1625965 0.05099736 0.101701 -0.3836552 -0.8405623 -0.3824444 132 95 63 255 
-0.1625989 0.05067461 0.09910399 -0.04847651 -0.6030959 -0.7961943 153 91 51 255 
-0.1620888 0.05063589 0.1002915 -0.2066285 -0.8084642 -0.5510811 162 91 46 255 
-0.1623832 0.05098502 0.09753741 -0.1524909 -0.09540402 -0.9836892 148 59 18 255 
-0.1624753 0.05282908 0.1042513 0.451075 0.578203 -0.6798623 139 70 43 255 
-0.1602743 0.05232984 0.104974 -0.0496861 0.8171387 -0.5742958 133 69 44 255 
-0.1577849 0.05499094 0.1096574 -0.2530072 0.5083646 -0.823136 82 65 49 255 
-0.1573183 0.05493845 0.1093232 -0.2476435 0.556161 -0.7933205 77 64 49 255 
-0.1568474 0.05508644 0.1094561 -0.3955726 0.6304851 -0.6678405 86 77 64 255 
-0.1568736 0.05579796 0.1100917 -0.2515675 0.6195869 -0.7435226 78 68 55 255 
-0.1563543 0.05561158 0.1096826 -0.3063805 0.6782247 -0.6679386 86 77 66 255 
-0.1558781 0.05492496 0.108177 -0.1918014 0.6899949 -0.6979393 103 96 87 255 
-0.1544756 0.05510274 0.1083789 0.1363412 0.6583471 -0.7402635 86 79 72 255 
-0.1778146 0.05331647 0.1125166 -0.377879 -0.6442025 -0.6649891 158 155 145 255 
-0.1771482 0.05293025 0.1124481 -0.363649 -0.6367612 -0.6799223 156 154 143 255 
-0.1766511 0.0531796 0.111976 -0.3213989 -0.5011231 -0.8034789 140 137 134 255 
-0.1761854 0.05338985 0.1119047 -0.2466067 -0.3709003 -0.8953313 127 123 119 255 
-0.1756652 0.05339697 0.1118331 -0.2205056 -0.2791808 -0.9345776 123 115 110 255 
-0.1702289 0.05359227 0.1110909 -0.02406897 0.05116297 -0.9984002 115 109 103 255 
-0.1698859 0.0541976 0.1112876 -0.04053357 0.06636534 -0.9969717 115 110 103 255 
-0.168101 0.04235995 0.1135905 -0.003245233 0.1784966 -0.9839352 91 31 10 255 
-0.1676273 0.05426753 0.1103905 -0.1169512 0.00517249 -0.9931241 116 108 97 255 
-0.1655672 0.05298826 0.1093154 -0.3161477 -0.4066126 -0.8571562 118 109 103 255 
-0.1654805 0.053301 0.1082758 -0.4002523 -0.2662746 -0.8768671 114 109 100 255 
-0.15716 0.04888049 0.09691118 -0.1540627 -0.6506777 -0.7435612 151 77 41 255 
-0.1581758 0.054996 0.1097303 -0.2253837 0.4718331 -0.8523942 85 71 52 255 
-0.1578195 0.05571277 0.1103353 -0.2048623 0.4778498 -0.8542194 82 70 55 255 
-0.156221 0.05474466 0.108252 -0.2616124 0.6960973 -0.6685863 94 87 75 255 
-0.1536197 0.04274555 0.1081667 0.8979917 -0.2466553 -0.3643792 166 88 91 255 
-0.1542764 0.05108336 0.1053134 0.7010722 0.006872296 -0.7130572 142 59 18 255 
-0.1523486 0.05246124 0.1076565 0.3840986 -0.2361747 -0.8925747 89 65 50 255 
-0.1525804 0.05337334 0.108106 0.3009337 0.3715621 -0.8782826 73 60 43 255 
-0.1499625 0.03933611 0.1143524 0.3041092 -0.335263 -0.8916929 78 76 72 255 
-0.1520586 0.05274493 0.1078924 0.4395994 0.1600625 -0.8838169 76 66 52 255 
-0.1521915 0.05345264 0.108079 0.4578643 0.2156566 -0.8624689 78 68 56 255 
-0.1713674 0.05350702 0.1114114 -0.04935668 0.03623342 -0.9981238 117 111 107 255 
-0.1708666 0.05345777 0.1112386 -0.03906925 0.05296406 -0.9978319 114 109 103 255 
-0.1647086 0.0521472 0.1087236 -0.275416 -0.5669402 -0.7763535 115 107 97 255 
-0.1628734 0.0447097 0.1117399 -0.3348926 -0.3663885 -0.8681051 99 36 9 255 
-0.1633524 0.05161582 0.1008712 -0.5410082 -0.1721255 -0.823215 144 86 54 255 
-0.1552816 0.05622844 0.1101447 -0.05151581 0.7409326 -0.6696006 85 78 70 255 
-0.1751793 0.05351565 0.1118148 -0.157974 -0.1959215 -0.9678113 119 115 107 255 
-0.1730832 0.05384932 0.1116764 -0.06275104 0.01352228 -0.9979375 118 113 105 255 
-0.1695804 0.05354185 0.1107144 -0.02895422 0.05139514 -0.9982586 115 109 100 255 
-0.1691539 0.05363405 0.1109493 -0.02887969 0.0581697 -0.9978889 114 108 101 255 
-0.1693769 0.05427316 0.1112494 -0.04265794 0.0739646 -0.9963481 115 109 101 255 
-0.1669392 0.05410086 0.1099563 -0.1774815 -0.08010349 -0.9808586 114 110 102 255 
-0.164963 0.05244394 0.1085925 -0.3378742 -0.5019458 -0.796173 117 108 101 255 
-0.1573165 0.0557901 0.1102488 -0.2293265 0.5407186 -0.8093411 77 66 49 255 
-0.1566884 0.0540109 0.1075738 -0.3182167 0.670538 -0.6701618 95 83 70 255 
-0.1518319 0.05300791 0.1082583 0.5809948 0.03198925 -0.8132784 79 76 65 255 
-0.1779839 0.05376473 0.1121428 -0.3307271 -0.5404545 -0.7736462 147 144 140 255 
-0.177439 0.05375716 0.1120161 -0.2876343 -0.4528489 -0.8439161 132 128 125 255 
-0.1769607 0.05375752 0.1119345 -0.2531263 -0.3748012 -0.8918806 126 122 118 255 
-0.1764696 0.0538274 0.111893 -0.2076221 -0.2817616 -0.9367515 123 117 113 255 
-0.1759563 0.05389604 0.1118452 -0.1642082 -0.1889342 -0.968163 122 115 110 255 
-0.1754427 0.05400641 0.1118423 -0.119274 -0.1060591 -0.9871804 121 116 109 255 
-0.1747859 0.05379349 0.1117761 -0.1059136 -0.08796705 -0.9904766 120 114 109 255 
-0.1742943 0.05392308 0.1117591 -0.09042562 -0.04125283 -0.9950483 117 114 108 255 
-0.1724567 0.05395465 0.1116523 -0.04555291 0.03162982 -0.9984611 117 113 106 255 
-0.1716241 0.05405369 0.1114658 -0.0631796 0.04361524 -0.9970487 117 112 106 255 
-0.1708489 0.05397384 0.1110262 -0.03932213 0.06354522 -0.997204 115 109 103 255 
-0.1707825 0.05447614 0.1109426 -0.03830096 0.06585868 -0.9970936 117 109 103 255 
-0.170168 0.05406998 0.1108106 -0.01571834 0.05964769 -0.9980957 114 109 104 255 
-0.1701738 0.05468519 0.1112354 -0.01851943 0.06655192 -0.9976111 116 109 99 255 
-0.1663728 0.03454069 0.1069404 0.8220204 -0.06240237 -0.5660287 60 32 21 255 
-0.1695487 0.05477646 0.1112678 -0.03022167 0.07030468 -0.9970676 114 108 102 255 
-0.1687329 0.05441163 0.1108045 -0.04367656 0.08519229 -0.9954067 113 109 100 255 
-0.1685207 0.05485173 0.1109855 -0.0819863 0.06890745 -0.9942484 116 110 103 255 
-0.1678174 0.05387383 0.1108194 -0.07860246 0.01681703 -0.9967642 114 106 101 255 
-0.1680697 0.05494033 0.1111373 -0.1548275 0.03532578 -0.9873097 118 111 104 255 
-0.1623166 0.02121129 0.1055023 0.7727 -0.4780768 -0.4175853 145 116 91 255 
-0.1655792 0.05360356 0.1082775 -0.2909878 -0.1406536 -0.9463311 114 110 100 255 
-0.1641798 0.05238906 0.1061273 -0.6051043 -0.6898602 -0.3974189 109 103 95 255 
-0.1639128 0.05241435 0.1022417 -0.4992492 0.0939575 -0.861349 138 85 65 255 
-0.1635248 0.0517303 0.09864492 -0.1571302 0.06253026 -0.9855962 131 45 16 255 
-0.1589741 0.02831211 0.1086134 0.7523228 -0.3648585 -0.5485331 105 95 88 255 
-0.1616257 0.05564679 0.1115515 -0.0006304526 0.3164763 -0.9486001 125 82 62 255 
-0.1604713 0.05578465 0.1114477 -0.05867893 0.2468681 -0.9672709 117 90 76 255 
-0.1598662 0.05570396 0.1113605 -0.09637715 0.2716035 -0.9575714 104 86 73 255 
-0.1590624 0.05503364 0.1102534 -0.145486 0.4255068 -0.8931841 93 76 63 255 
-0.1592251 0.05608667 0.1113607 -0.1526638 0.2697621 -0.9507482 98 84 70 255 
-0.1595598 0.05643268 0.111566 -0.1076917 0.2618137 -0.9590912 101 88 75 255 
-0.1587121 0.05623958 0.1112554 -0.1721292 0.3206929 -0.9314116 91 81 67 255 
-0.1583102 0.05650377 0.1113365 -0.2001399 0.3735594 -0.905758 90 81 66 255 
-0.1576481 0.05654851 0.1111043 -0.2072028 0.4983964 -0.8418242 82 72 58 255 
-0.1570291 0.05658369 0.1109743 -0.1952613 0.573097 -0.7958848 77 67 51 255 
-0.1565003 0.05649593 0.1108579 -0.2023195 0.6326357 -0.7475553 78 69 54 255 
-0.1559448 0.05596642 0.1099157 -0.1990244 0.7177976 -0.6671999 88 76 68 255 
-0.1539661 0.04362957 0.1070667 0.7830092 -0.05980194 -0.6191286 204 76 84 255 
-0.155603 0.05697482 0.1111174 -0.1049099 0.6436256 -0.758116 93 86 76 255 
-0.1535231 0.04430781 0.1075526 0.8231252 0.08082978 -0.5620777 184 85 92 255 
-0.1550816 0.05561172 0.1090488 -0.02589217 0.7455763 -0.665917 88 79 73 255 
-0.1644321 0.04343851 0.1130353 -0.1173899 -0.1277655 -0.9848328 103 34 2 255 
-0.1630475 0.05145413 0.09812737 -0.1556734 -0.2348972 -0.9594734 147 60 24 255 
-0.1592295 0.02820003 0.1081393 0.7116607 -0.2627546 -0.6515359 133 123 121 255 
-0.1581801 0.02940319 0.1091781 0.8297363 -0.179333 -0.5285615 84 54 41 255 
-0.1587946 0.04949113 0.09847499 -0.3970083 -0.8310282 -0.389585 90 63 44 255 
-0.1544892 0.05015222 0.1028295 0.6245271 -0.4434814 -0.6428763 185 105 50 255 
-0.1545764 0.0517259 0.1062692 0.6331203 0.3049113 -0.7114686 98 47 8 255 
-0.1521215 0.05213018 0.1077467 0.4872528 -0.1730957 -0.8559337 78 63 47 255 
-0.1515385 0.05207127 0.1082123 0.6322778 -0.1925071 -0.7504437 91 71 54 255 
-0.1610512 0.04555658 0.110477 -0.3438329 -0.1150336 -0.9319583 116 65 47 255 
-0.1593839 0.03380874 0.1078298 0.5453225 -0.4825017 -0.6854308 120 56 46 255 
-0.1749265 0.05432711 0.1118046 -0.07868183 -0.0238257 -0.9966151 120 115 110 255 
-0.1715879 0.05454467 0.1114351 -0.03617857 0.06121609 -0.9974685 116 112 104 255 
-0.1671532 0.03433185 0.1058185 0.4955043 0.01435254 -0.8684868 77 65 55 255 
-0.1662681 0.05342891 0.1099467 -0.1743999 -0.133118 -0.9756353 111 104 99 255 
-0.1665276 0.05451177 0.1094947 -0.3977887 -0.1401021 -0.9067168 114 109 100 255 
-0.1643651 0.05241178 0.1069925 -0.5020355 -0.4526987 -0.7369018 114 108 101 255 
-0.1635747 0.05191055 0.103849 -0.4960865 -0.68222 -0.5370979 115 98 84 255 
-0.1635986 0.05385412 0.1075632 0.2179234 0.4451996 -0.8685083 121 73 59 255 
-0.1615344 0.04583431 0.1107382 -0.2566147 -0.1469282 -0.9552806 110 67 57 255 
-0.1633 0.05332131 0.1057294 0.3926525 0.3885791 -0.8335649 132 77 50 255 
-0.1614556 0.05380105 0.1080993 0.09650786 0.6948774 -0.7126229 132 72 44 255 
-0.1596463 0.05000948 0.1004903 -0.3269184 -0.9031003 -0.2784498 110 82 66 255 
-0.1601454 0.05629967 0.1115467 -0.06776181 0.2329768 -0.9701186 110 93 84 255 
-0.1573514 0.05394907 0.1080502 -0.3024295 0.6745601 -0.6734277 88 70 51 255 
-0.1737944 0.05418359 0.1117647 -0.06253981 0.01040317 -0.9979882 116 113 107 255 
-0.1707685 0.05498744 0.1115305 -0.01727885 0.07743595 -0.9968476 113 112 107 255 
-0.1692482 0.05509735 0.1114485 -0.0491394 0.07781886 -0.9957557 113 108 104 255 
-0.1661087 0.05452616 0.1084004 -0.5458284 -0.1894189 -0.8162057 114 107 99 255 
-0.1631612 0.05144046 0.1009622 -0.4437281 -0.6312056 -0.6361483 116 93 70 255 
-0.1645729 0.05350756 0.104482 -0.2546437 0.2768224 -0.9265667 140 73 42 255 
-0.1625518 0.04509992 0.1111849 -0.3439581 -0.4450792 -0.8267993 117 66 40 255 
-0.1608085 0.05620919 0.1115861 -0.0369739 0.2172876 -0.9754071 116 95 86 255 
-0.1587668 0.05694556 0.111584 -0.1204156 0.2928372 -0.9485497 98 88 78 255 
-0.1565793 0.05716744 0.1114109 -0.1455878 0.5590815 -0.8162304 84 75 62 255 
-0.1561221 0.05715329 0.1113511 -0.1464583 0.5811693 -0.800495 89 84 72 255 
-0.1646813 0.05286929 0.1050026 -0.7320201 -0.2896268 -0.6166548 106 94 80 255 
-0.1849332 0.01017704 0.0990395 -0.2065801 -0.1308408 -0.9696418 110 98 91 255 
-0.1776835 0.05427332 0.1119635 -0.2206583 -0.331191 -0.9173998 124 122 118 255 
-0.1771364 0.05430234 0.1119439 -0.1782909 -0.2486061 -0.9520542 120 117 112 255 
-0.1766093 0.05443072 0.111901 -0.1351011 -0.1485821 -0.979628 121 116 111 255 
-0.1760011 0.05448605 0.1118736 -0.1092757 -0.07829537 -0.990923 119 116 111 255 
-0.1732852 0.05442062 0.1116867 -0.0574463 0.02267992 -0.9980909 117 115 109 255 
-0.1727691 0.05441118 0.1117432 -0.03992569 0.04491496 -0.9981927 116 114 109 255 
-0.1722548 0.05443871 0.1116086 -0.04054988 0.05005522 -0.9979229 112 111 107 255 
-0.1728359 0.05485725 0.1116429 -0.04595488 0.05564858 -0.9973922 115 113 109 255 
-0.1715001 0.05490466 0.1112197 -0.03237024 0.05854885 -0.9977596 116 110 105 255 
-0.1711441 0.055031 0.1113778 -0.04690744 0.0615572 -0.9970007 114 110 104 255 
-0.1666972 0.03196799 0.108538 0.8254944 -0.3892 -0.4087572 37 15 6 255 
-0.1662031 0.02891666 0.1048885 0.1143902 0.8030749 -0.5847952 64 22 4 255 
-0.1697647 0.05502548 0.110805 -0.02644242 0.07896011 -0.996527 114 112 106 255 
-0.1695352 0.0553274 0.1112 -0.04158157 0.08002578 -0.9959252 111 107 103 255 
-0.1687123 0.05542406 0.1111929 -0.0706545 0.09755111 -0.9927193 115 111 107 255 
-0.1681837 0.05551277 0.1112477 -0.1351005 0.07743639 -0.9878013 117 113 108 255 
-0.1676289 0.05525647 0.1107977 -0.2439462 -0.0005889657 -0.9697886 115 110 103 255 
-0.1619227 0.05611051 0.1116812 -0.002683654 0.2330097 -0.9724707 121 87 70 255 
-0.1613713 0.05616767 0.1116531 -0.03810519 0.2180029 -0.9752039 118 93 78 255 
-0.1605122 0.05674785 0.11168 -0.0516586 0.1934751 -0.9797443 111 97 88 255 
-0.1599017 0.05681457 0.1116538 -0.07795032 0.1972952 -0.9772401 106 93 85 255 
-0.1586595 0.0550446 0.1100572 -0.2136749 0.452592 -0.8657387 90 75 62 255 
-0.1592855 0.0568408 0.1116273 -0.09811109 0.2391427 -0.9660149 102 91 82 255 
-0.1573021 0.04719497 0.1099257 -0.2015285 0.6596636 -0.7240374 100 48 38 255 
-0.1579038 0.05326656 0.106861 -0.3120015 0.7342933 -0.6028833 92 67 40 255 
-0.1582065 0.05707356 0.1115586 -0.1468558 0.3732623 -0.9160287 95 87 75 255 
-0.1576422 0.05711951 0.1115128 -0.1620445 0.4336962 -0.8863685 92 85 69 255 
-0.1571007 0.05724598 0.1115231 -0.1593097 0.4894774 -0.8573401 86 78 63 255 
-0.1772669 0.05143676 0.1151663 -0.2057552 -0.302817 -0.9305732 88 88 86 255 
-0.1738652 0.05477845 0.1117718 -0.04596444 0.03537714 -0.9983164 116 114 110 255 
-0.1653475 0.05372504 0.1056902 -0.67806 -0.180371 -0.7125314 110 103 86 255 
-0.16434 0.05277834 0.1030181 -0.6561154 -0.3303685 -0.6785051 116 92 77 255 
-0.1649985 0.05411094 0.1065011 -0.2089006 0.4876963 -0.8476514 123 89 67 255 
-0.1632418 0.04515227 0.1117945 -0.3115073 -0.5296505 -0.7889446 100 42 22 255 
-0.1771751 0.05480758 0.1119407 -0.121052 -0.1078909 -0.9867654 118 116 109 255 
-0.1766911 0.05500925 0.1119511 -0.08039973 -0.04000835 -0.9959595 119 115 110 255 
-0.1761753 0.05501519 0.1119105 -0.06833095 -0.007500551 -0.9976345 120 117 111 255 
-0.1756075 0.05512266 0.111838 -0.06161665 0.00459642 -0.9980893 119 117 111 255 
-0.1750149 0.05495628 0.1118043 -0.0636608 0.01745755 -0.9978188 118 116 112 255 
-0.1744637 0.05508879 0.1117858 -0.04590567 0.04015348 -0.9981384 118 115 111 255 
-0.1739783 0.0555178 0.1117961 -0.03750221 0.0565818 -0.9976933 115 114 108 255 
-0.1733687 0.05582045 0.1117261 -0.03944697 0.048991 -0.9980199 114 113 106 255 
-0.1727187 0.05538823 0.1116155 -0.04967424 0.04241988 -0.9978642 113 112 107 255 
-0.1728425 0.05594084 0.1117167 -0.01744516 0.07466068 -0.9970564 114 112 107 255 
-0.1721295 0.05532458 0.111515 -0.02465142 0.05689388 -0.9980758 114 112 106 255 
-0.1722714 0.05597969 0.1116572 -0.01666313 0.06912293 -0.9974689 116 114 108 255 
-0.1716236 0.05554441 0.1115749 -0.03939967 0.0633482 -0.9972134 114 109 106 255 
-0.1718744 0.05614624 0.1117358 -0.02976893 0.06749183 -0.9972757 113 111 106 255 
-0.1709442 0.05542199 0.1111621 -0.02800472 0.08145215 -0.9962837 112 108 104 255 
-0.1711048 0.05605433 0.1114747 -0.02979917 0.06387676 -0.9975128 113 109 104 255 
-0.1701884 0.05529904 0.1108075 -0.026422 0.09115117 -0.9954865 114 109 102 255 
-0.170674 0.05599339 0.1114108 -0.02870419 0.07626987 -0.996674 112 109 103 255 
-0.169846 0.05560707 0.1110237 -0.03496215 0.08672325 -0.9956187 113 110 106 255 
-0.1702118 0.05614596 0.1113824 -0.03014148 0.1062639 -0.9938809 113 106 102 255 
-0.1691876 0.05562631 0.1109014 -0.04179028 0.0905695 -0.9950128 114 110 102 255 
-0.1696179 0.05621332 0.1114453 -0.04127468 0.08780819 -0.9952819 114 111 107 255 
-0.1690295 0.05598917 0.1116394 -0.06485388 0.09726083 -0.9931437 116 112 110 255 
-0.1688999 0.05628392 0.1111196 -0.08980428 0.1163678 -0.9891379 117 111 105 255 
-0.1680349 0.05580255 0.1106987 -0.1118326 0.09784365 -0.9888983 118 114 107 255 
-0.168456 0.05627771 0.1111574 -0.09060071 0.1262626 -0.9878508 115 112 105 255 
-0.1659396 0.05494774 0.1081532 -0.4703023 0.1526341 -0.8692058 116 106 91 255 
-0.1668274 0.05663859 0.1107477 -0.1100914 0.2447088 -0.9633262 109 103 96 255 
-0.1653513 0.0548521 0.1067062 -0.3426611 0.4109142 -0.8448271 121 95 75 255 
-0.1658499 0.05592488 0.1091417 -0.1089478 0.4676501 -0.8771737 120 88 71 255 
-0.1651861 0.05466498 0.1065668 -0.2037307 0.4849483 -0.8504816 140 84 54 255 
-0.1651778 0.05504059 0.1086498 0.02768712 0.5506819 -0.8342559 123 68 60 255 
-0.1637763 0.05681619 0.1115639 0.1120567 0.2749678 -0.954901 121 88 75 255 
-0.1632081 0.05683913 0.1118184 0.07006136 0.2200573 -0.9729677 121 88 69 255 
-0.1626566 0.05648024 0.1117562 0.04175743 0.2254196 -0.9733665 122 91 74 255 
-0.1628389 0.05704759 0.1117891 0.05731495 0.1852022 -0.9810276 121 101 91 255 
-0.1621427 0.05662818 0.1117392 0.01812793 0.1890666 -0.9817969 122 95 85 255 
-0.1623819 0.05697786 0.1117333 0.02873385 0.1701851 -0.9849931 118 101 91 255 
-0.1616182 0.05667379 0.1117666 -0.01108144 0.1846771 -0.9827367 118 99 87 255 
-0.1617426 0.05719408 0.1117784 -0.003907497 0.1413559 -0.9899511 116 103 93 255 
-0.1622217 0.05743685 0.1118341 0.01040716 0.1200944 -0.9927079 117 107 98 255 
-0.1610661 0.05670971 0.1116961 -0.03470879 0.1877995 -0.9815939 117 99 90 255 
-0.1611661 0.05724534 0.1117828 -0.01476745 0.1341097 -0.9908563 115 103 96 255 
-0.1614276 0.05769709 0.1118371 -0.004178707 0.1054322 -0.9944176 114 106 99 255 
-0.1605607 0.05737802 0.1118033 -0.0440468 0.1438402 -0.9886202 110 99 91 255 
-0.1608764 0.05774352 0.1118488 -0.02813975 0.1151334 -0.9929514 109 101 94 255 
-0.1600778 0.05731951 0.11177 -0.04775095 0.1747548 -0.9834534 107 95 87 255 
-0.1600386 0.05781167 0.1118454 -0.04104178 0.1406616 -0.9892066 107 98 88 255 
-0.15951 0.05735541 0.1117087 -0.07301437 0.1847944 -0.9800611 102 94 85 255 
-0.1594432 0.05789004 0.1118819 -0.05769653 0.1648289 -0.9846331 104 96 87 255 
-0.158973 0.05749346 0.111778 -0.1089778 0.2636774 -0.9584352 100 91 82 255 
-0.1589649 0.05799502 0.1118093 -0.0541608 0.1813332 -0.9819292 104 97 85 255 
-0.1584866 0.05758966 0.1117742 -0.1127091 0.2861652 -0.9515283 99 91 81 255 
-0.1584931 0.05812747 0.1118613 -0.07359809 0.2267436 -0.9711697 102 95 85 255 
-0.1579108 0.05764099 0.1117118 -0.1157884 0.3310479 -0.9364828 97 89 79 255 
-0.1580269 0.05814505 0.1118218 -0.06404244 0.2530372 -0.9653345 101 93 83 255 
-0.1573169 0.05778052 0.1117151 -0.1143509 0.3729744 -0.9207681 95 88 76 255 
-0.1555791 0.05324943 0.107147 0.279718 0.4580591 -0.8437651 78 67 52 255 
-0.1550765 0.05334186 0.1074754 0.2831818 0.3422316 -0.8959271 87 70 50 255 
-0.1552535 0.05416022 0.1075827 0.169785 0.5209078 -0.8365573 79 80 72 255 
-0.1547841 0.05433585 0.1077929 0.2005093 0.4973741 -0.8440468 93 94 84 255 
-0.1734178 0.05514196 0.1117467 -0.04915083 0.04544813 -0.9977568 114 112 110 255 
-0.1676229 0.05494099 0.1111231 -0.2254847 -0.05018543 -0.9729533 114 108 104 255 
-0.1670103 0.05587514 0.1093567 -0.3242126 0.2204235 -0.9199454 118 107 96 255 
-0.1619361 0.04588384 0.1106889 -0.2397462 -0.01859035 -0.9706576 104 71 58 255 
-0.1542233 0.05340103 0.1080748 0.2588341 0.1935112 -0.9463394 68 50 21 255 
-0.1800765 0.0100068 0.1004394 0.6621132 -0.08954545 -0.7440347 109 93 78 255 
-0.1766452 0.03519667 0.1069671 0.2420677 -0.2251113 -0.9437839 136 15 15 255 
-0.1673729 0.05570851 0.1099916 -0.2067135 0.1329911 -0.9693208 117 106 94 255 
-0.1678273 0.0564717 0.1107148 -0.163233 0.1393355 -0.9766989 117 110 101 255 
-0.1559332 0.05232118 0.1052701 0.2577073 0.7046349 -0.6611177 87 64 37 255 
-0.1540286 0.05303824 0.1081452 0.1986593 0.05536078 -0.9785038 70 46 18 255 
-0.1590816 0.04969063 0.09714915 -0.3366498 -0.2673826 -0.9028695 126 63 29 255 
-0.1591701 0.05409903 0.1085891 -0.242822 0.6079908 -0.7558999 105 75 50 255 
-0.1547915 0.05360644 0.1078149 0.338599 0.3054902 -0.8899586 71 53 35 255 
-0.1745305 0.05571201 0.1118762 -0.01435637 0.06885741 -0.9975232 115 113 110 255 
-0.1740088 0.05608501 0.1118482 -0.04112975 0.05590478 -0.9975886 114 113 108 255 
-0.1705952 0.05654925 0.1114234 -0.02472727 0.09980842 -0.9946994 115 110 104 255 
-0.1699284 0.05653321 0.1111939 -0.03638097 0.08825553 -0.9954332 115 113 106 255 
-0.1694157 0.05661379 0.1112254 -0.03294207 0.1123294 -0.9931248 113 108 99 255 
-0.1687925 0.05669881 0.1110418 -0.06585512 0.1187563 -0.9907371 111 109 100 255 
-0.1683004 0.05661335 0.1110209 -0.09573859 0.1359473 -0.9860793 113 109 102 255 
-0.1664517 0.0552403 0.1088894 -0.4087721 0.03411393 -0.9119987 114 106 94 255 
-0.1666567 0.05610184 0.1101097 -0.02478151 0.4353465 -0.8999218 111 90 81 255 
-0.1643886 0.05740897 0.1118409 0.08857259 0.2026262 -0.9752423 120 75 63 255 
-0.163052 0.05763403 0.1117967 0.03253228 0.1241776 -0.9917266 121 110 99 255 
-0.1618918 0.05780377 0.1118114 0.002103245 0.09296974 -0.9956667 116 107 99 255 
-0.1612597 0.05818253 0.1118713 0.0006255759 0.07168524 -0.997427 112 104 97 255 
-0.1605615 0.05812013 0.1118501 -0.02631334 0.1047454 -0.9941508 109 100 93 255 
-0.1600098 0.05831156 0.1119017 -0.0188551 0.1128591 -0.993432 107 99 91 255 
-0.1594982 0.05838902 0.1118985 -0.03106134 0.1246207 -0.9917181 107 100 91 255 
-0.1589985 0.05848061 0.111898 -0.02709637 0.1479178 -0.9886284 108 101 92 255 
-0.1584512 0.05864316 0.1119014 -0.03603195 0.1456013 -0.988687 107 100 92 255 
-0.1773304 0.02892902 0.1074022 -0.2907942 0.5283619 -0.7976669 74 32 15 255 
-0.1765264 0.05556076 0.111915 -0.05216659 0.01759531 -0.9984833 116 114 108 255 
-0.1759807 0.05559396 0.1119028 -0.05416815 0.02310087 -0.9982645 117 116 112 255 
-0.1760551 0.05624187 0.1119639 -0.02362704 0.07181555 -0.997138 116 116 112 255 
-0.1755265 0.05579178 0.111949 -0.02253013 0.06922986 -0.9973463 115 115 110 255 
-0.1755922 0.05637689 0.1119623 -0.01659667 0.07663873 -0.9969208 115 115 110 255 
-0.1733786 0.05645081 0.1117583 -0.03490377 0.06076625 -0.9975415 114 112 107 255 
-0.1727528 0.05653923 0.1116996 -0.0240756 0.06490233 -0.9976011 113 109 104 255 
-0.1722411 0.05662856 0.1117314 -0.02276212 0.05597378 -0.9981727 113 111 107 255 
-0.1717155 0.05671463 0.1117029 -0.03422282 0.06194199 -0.9974928 113 111 107 255 
-0.1647351 0.04308466 0.1134817 -0.06089283 -0.05059192 -0.9968613 106 38 4 255 
-0.1646827 0.04479804 0.1130508 -0.1934126 -0.2833703 -0.9393044 93 30 8 255 
-0.1639361 0.04484055 0.1122952 -0.2162637 -0.2838226 -0.9341705 96 33 6 255 
-0.1649265 0.05739712 0.111839 0.0770357 0.2044061 -0.9758502 118 75 66 255 
-0.1639789 0.05734571 0.1118113 0.07219991 0.2100204 -0.9750275 121 77 62 255 
-0.1636593 0.05757218 0.1118261 0.06922528 0.1606616 -0.984579 126 97 80 255 
-0.1635923 0.05804572 0.1118571 0.04031711 0.1168098 -0.9923356 121 109 100 255 
-0.1631959 0.05823107 0.1118501 0.01636335 0.08728179 -0.9960492 121 112 103 255 
-0.1626863 0.05817628 0.1118304 0.003844487 0.07671055 -0.997046 118 110 102 255 
-0.1770669 0.0556381 0.111943 -0.06105854 -0.004627605 -0.9981235 114 112 106 255 
-0.1745513 0.05634446 0.1118394 -0.02659806 0.0612083 -0.9977705 112 111 107 255 
-0.1739995 0.05662283 0.1118404 -0.02848299 0.05885346 -0.9978602 111 110 106 255 
-0.1706654 0.05699979 0.1112728 -0.0216322 0.0889775 -0.9957986 114 111 104 255 
-0.1700929 0.05703477 0.1112706 -0.02736559 0.09185933 -0.9953959 115 112 106 255 
-0.1696661 0.0571404 0.111419 -0.04637353 0.09788793 -0.9941165 114 108 104 255 
-0.1689713 0.05740508 0.1115052 -0.04976007 0.08835445 -0.9948454 112 110 106 255 
-0.1685995 0.05718965 0.1115186 -0.07786478 0.09765477 -0.9921696 115 113 109 255 
-0.1681286 0.05739329 0.1116003 -0.07474288 0.1261137 -0.9891961 114 111 105 255 
-0.1651862 0.04304332 0.1135019 -0.002695599 -0.02087778 -0.9997783 102 34 6 255 
-0.1617866 0.05846558 0.1118683 0.0021352 0.05820715 -0.9983022 113 106 97 255 
-0.1611336 0.05862717 0.1118969 0.01468368 0.06543726 -0.9977486 111 104 96 255 
-0.1606677 0.058736 0.1118918 -0.005007325 0.06259868 -0.9980262 111 104 95 255 
-0.1600372 0.05885716 0.1119188 -0.000467301 0.08262894 -0.9965802 108 101 93 255 
-0.1594968 0.05893423 0.1119264 -0.010297 0.09375579 -0.995542 112 105 97 255 
-0.1589809 0.05900439 0.1119126 -0.01232518 0.104963 -0.9943997 117 110 100 255 
-0.1750908 0.05558699 0.111853 -0.04889365 0.04342665 -0.9978595 115 114 110 255 
-0.1750809 0.0562464 0.1118874 -0.04108023 0.05004749 -0.9979016 113 112 106 255 
-0.171113 0.05665213 0.1116251 -0.02880159 0.08692693 -0.9957982 111 104 100 255 
-0.1622309 0.05816339 0.1118552 0.01193516 0.0685119 -0.9975788 114 106 99 255 
-0.1766026 0.05621391 0.1120006 -0.027671 0.07106451 -0.9970878 113 113 110 255 
-0.1674928 0.05738189 0.111533 -0.06795509 0.1673858 -0.9835467 111 104 98 255 
-0.1657291 0.05612566 0.1092025 -0.0270483 0.4783386 -0.8777589 132 80 56 255 
-0.1651819 0.05831567 0.1119025 0.06475069 0.1335585 -0.9889234 130 70 50 255 
-0.1645202 0.05840192 0.1118773 0.06871544 0.1104612 -0.9915021 127 90 72 255 
-0.1642138 0.05791499 0.1118894 0.09043816 0.1585334 -0.9832029 122 96 79 255 
-0.1514459 0.0489548 0.1108032 0.6945226 -0.08518165 -0.7144105 119 89 82 255 
-0.1652824 0.05773539 0.1118465 0.05664388 0.18711 -0.9807044 124 71 61 255 
-0.1647309 0.05788622 0.1118225 0.05289002 0.1620078 -0.9853709 125 70 55 255 
-0.164116 0.05556303 0.1090291 0.1784416 0.5804577 -0.7944982 135 63 49 255 
-0.1601455 0.05568189 0.1113346 -0.1210226 0.3100332 -0.9429914 107 88 71 255 
-0.1595612 0.05576424 0.1113096 -0.1259223 0.3257087 -0.9370471 99 85 72 255 
-0.1669952 0.05748804 0.1114363 -0.05642673 0.1969343 -0.9787915 110 102 96 255 
-0.1666306 0.05708192 0.1111368 -0.02563288 0.2366946 -0.9712459 111 97 92 255 
-0.1657843 0.05792808 0.1118542 0.03363922 0.176528 -0.9837206 121 74 66 255 
-0.1653706 0.05583161 0.1093276 -0.09079483 0.4103825 -0.9073822 129 71 56 255 
-0.1647153 0.05600579 0.1097033 0.1173951 0.4698402 -0.8749107 131 69 57 255 
-0.1624302 0.05446296 0.1083089 0.3903656 0.5985258 -0.6995582 129 59 45 255 
-0.1587139 0.05571961 0.1108673 -0.1994373 0.38277 -0.9020597 89 78 64 255 
-0.1546258 0.05415154 0.1078905 0.2204432 0.4044592 -0.8875908 70 64 50 255 
-0.166954 0.05529771 0.1097991 -0.2952907 0.01570363 -0.9552784 112 101 87 255 
-0.16238 0.05405552 0.1080043 0.2557616 0.5641676 -0.7850484 127 63 49 255 
-0.162413 0.05577539 0.1112249 0.2501661 0.3603606 -0.8986418 122 71 59 255 
-0.1612621 0.055126 0.1109548 0.004472549 0.5015438 -0.8651206 126 76 56 255 
-0.1606007 0.0549966 0.1105496 -0.06901972 0.5132009 -0.8554888 118 79 61 255 
-0.1677681 0.05777963 0.111708 -0.01403219 0.1220648 -0.9924229 111 107 101 255 
-0.1632901 0.05461125 0.1082391 0.2095667 0.5025892 -0.8387406 123 65 51 255 
-0.1650885 0.05209414 0.1106779 -0.2193917 -0.3081276 -0.9257022 110 100 93 255 
-0.1633945 0.05724392 0.1118113 0.09044894 0.2028374 -0.9750261 122 93 76 255 
-0.1584178 0.05417546 0.1088718 -0.294652 0.5815884 -0.7582448 94 69 46 255 
-0.176524 0.05676307 0.1120423 -0.02503882 0.07933297 -0.9965336 113 112 108 255 
-0.1759708 0.05688788 0.1119922 -0.02721472 0.07454848 -0.9968459 113 112 108 255 
-0.1753425 0.05682663 0.1119886 -0.03797263 0.07005911 -0.9968198 110 110 106 255 
-0.1749282 0.05692221 0.1118938 -0.04629929 0.0491384 -0.9977182 108 109 104 255 
-0.1697757 0.05770779 0.1116059 -0.0438485 0.07658601 -0.9960983 115 112 108 255 
-0.1693809 0.0572104 0.1116557 -0.06797161 0.09907303 -0.9927559 112 110 105 255 
-0.1693042 0.05781747 0.1116744 -0.04831113 0.08256147 -0.9954143 116 115 107 255 
-0.1686615 0.05786262 0.1116527 -0.06471168 0.08062198 -0.9946418 116 112 104 255 
-0.1682246 0.05784044 0.1116767 -0.06974221 0.1272471 -0.9894161 112 107 100 255 
-0.1669212 0.05811982 0.1116135 0.04022751 0.1559494 -0.9869455 109 94 83 255 
-0.166825 0.05766915 0.1111143 -0.04622581 0.3237867 -0.9450002 115 89 82 255 
-0.1660308 0.05696175 0.1103211 -0.08410267 0.4184498 -0.9043376 133 85 58 255 
-0.1641997 0.05278852 0.1035795 -0.2621211 0.2475389 -0.932747 140 69 41 255 
-0.1637749 0.05861593 0.111877 0.03175293 0.0663692 -0.9972898 118 107 97 255 
-0.1631557 0.05877195 0.1118551 0.0077998 0.03791565 -0.9992505 115 108 99 255 
-0.1625717 0.05881517 0.1118823 0.005990717 0.04221065 -0.9990908 113 105 97 255 
-0.1765417 0.03005976 0.1085393 0.06760809 0.2494604 -0.966022 85 49 26 255 
-0.1760284 0.05742041 0.1119702 -0.02514747 0.07812205 -0.9966265 112 111 107 255 
-0.1754247 0.05738827 0.1119291 -0.0327051 0.0560399 -0.9978927 111 109 107 255 
-0.1738118 0.05710935 0.1116608 -0.01977319 0.07055464 -0.9973119 108 106 101 255 
-0.1732898 0.0570819 0.1117906 -0.02355267 0.07876235 -0.9966151 108 106 102 255 
-0.1725503 0.05712511 0.1115039 -0.01502212 0.08230002 -0.9964943 109 107 102 255 
-0.1720918 0.05726016 0.1117054 -0.02622936 0.08033634 -0.9964226 113 111 106 255 
